# .PCD v0.7 - Point Cloud Data file format
VERSION 0.7
FIELDS x y z
SIZE 4 4 4
TYPE F F F
COUNT 1 1 1
WIDTH 1367
HEIGHT 1
VIEWPOINT 0 0 0 1 0 0 0
POINTS 1367
DATA ascii
-0.059176236 0.066899486 0.92322093
-0.058865219 0.06692595 0.92317802
-0.05855599 0.066954508 0.92316413
-0.057310849 0.067060441 0.92299277
-0.056997597 0.067084894 0.9229216
-0.056059301 0.067160308 0.92273629
-0.05574584 0.067184761 0.922665
-0.055434078 0.06721136 0.92262304
-0.055122167 0.067237891 0.92258
-0.054806799 0.067260236 0.92247957
-0.05449307 0.067284718 0.92240822
-0.054182678 0.067313403 0.92239439
0.18811844 0.087004982 0.87730324
0.18847607 0.087030508 0.87719178
0.18885264 0.08706478 0.87716824
0.18922326 0.087096237 0.87711644
0.19363776 0.087456129 0.87630928
0.19400297 0.087484717 0.87622738
0.19510549 0.087573394 0.87601042
0.19547099 0.08760199 0.87592834
0.19584332 0.087633632 0.87587661
0.19621547 0.087665141 0.8758235
0.19657452 0.087690771 0.8757115
0.1969403 0.087719388 0.87562931
0.19731958 0.087753974 0.87560654
0.19768554 0.087782606 0.87552428
0.19804478 0.087808244 0.87541211
0.19841096 0.087836906 0.87533003
0.19879059 0.087871492 0.87530696
0.19915688 0.087900169 0.87522489
0.19950978 0.087922908 0.87508368
0.20060933 0.088008977 0.87483716
0.20098262 0.088040583 0.87478393
0.20135599 0.088072188 0.87473053
0.20173648 0.088106863 0.87470746
0.20211008 0.088138506 0.87465411
0.20247699 0.088167191 0.87457144
0.20284428 0.088196009 0.87449002
0.20322496 0.088230617 0.87446588
0.20358533 0.088256367 0.87435383
0.20393887 0.088279158 0.8742125
0.20468749 0.088342652 0.87410676
0.20505501 0.088371404 0.87402433
-0.083624393 0.065259844 0.92770284
-0.079631299 0.065584846 0.92695963
-0.079327434 0.065612994 0.92694634
-0.079016179 0.065635115 0.92684782
-0.07686004 0.065810077 0.92643976
-0.076553136 0.065836258 0.92639792
-0.076250792 0.065866493 0.92641288
-0.075943708 0.065892667 0.92637074
-0.075631827 0.065914802 0.92627156
-0.074703068 0.065987371 0.92606044
-0.074393362 0.06601157 0.92598999
-0.073158383 0.066112392 0.9257642
-0.07285738 0.066144802 0.92580819
-0.072551638 0.066173017 0.92579353
-0.072239161 0.066195175 0.92569387
-0.071928948 0.066219412 0.92562336
-0.071623117 0.066247754 0.92561007
-0.071312755 0.066271983 0.92553943
-0.070997953 0.066292152 0.9254117
-0.070068508 0.066366956 0.92522812
-0.069764256 0.066397324 0.92524242
-0.069459975 0.06642773 0.92525715
-0.069149137 0.066452019 0.92518651
-0.068834037 0.066472203 0.92505872
-0.068520993 0.06649442 0.9249593
-0.068212122 0.066520751 0.9249168
-0.06790325 0.06654714 0.92487508
-0.067592114 0.066571422 0.92480409
-0.067283034 0.066597752 0.92476141
-0.066975951 0.066626191 0.92474794
-0.066664666 0.06665051 0.92467701
-0.066351235 0.066672735 0.92457724
-0.06603986 0.066697069 0.92450643
-0.065732509 0.066725537 0.92449301
-0.065422952 0.066751905 0.92445022
-0.065113306 0.06677828 0.92440736
-0.064805716 0.066806771 0.92439383
-0.064493954 0.066831127 0.92432308
-0.064180136 0.066853382 0.92422301
-0.063868284 0.066877745 0.92415208
-0.063560337 0.066906273 0.92413855
-0.063248396 0.066930644 0.92406762
-0.062934309 0.066952914 0.9239676
-0.062622249 0.0669773 0.92389667
-0.062314004 0.067005843 0.92388302
-0.062003642 0.067032278 0.92384017
-0.061693221 0.067058712 0.92379713
-0.060757905 0.067133993 0.92361248
-0.060445338 0.067158423 0.92354143
-0.060136497 0.067187011 0.92352766
-0.059823841 0.067211442 0.92345673
-0.059509218 0.067233771 0.92335653
-0.059194624 0.06725613 0.92325699
-0.058883697 0.067282699 0.92321497
-0.058576196 0.067313321 0.92322862
-0.05732742 0.067415282 0.92300034
-0.057014167 0.067439765 0.92292923
-0.056075871 0.067515284 0.92274392
-0.05576241 0.067539774 0.92267263
-0.055452377 0.067568481 0.92265886
-0.055138767 0.067592986 0.92258763
-0.054823399 0.06761536 0.9224872
-0.05450967 0.067639872 0.92241585
-0.047926128 0.068180904 0.92125642
0.18810047 0.087389506 0.87731153
0.1884581 0.087415062 0.87720007
0.18883467 0.087449387 0.87717652
0.18920529 0.08748091 0.87712473
0.19361976 0.087841339 0.87631756
0.19398496 0.087869965 0.87623566
0.19508748 0.087958768 0.8760187
0.19545297 0.087987408 0.87593663
0.19583179 0.088022009 0.87591386
0.19619745 0.088050656 0.87583172
0.19655651 0.088076308 0.87571979
0.19692229 0.088104971 0.87563759
0.19730155 0.088139616 0.87561482
0.19766751 0.088168286 0.87553257
0.19802676 0.088193946 0.87542039
0.19839293 0.088222645 0.87533832
0.19877256 0.088257305 0.87531525
0.19913885 0.08828602 0.87523317
0.19949175 0.088308766 0.87509197
0.20059128 0.088394955 0.87484545
0.20096457 0.08842662 0.87479222
0.20133795 0.088458277 0.87473881
0.20171843 0.088493019 0.87471575
0.20208532 0.088521764 0.87463331
0.20245212 0.088550441 0.87455034
0.20282596 0.088582166 0.87449718
0.20320012 0.088613994 0.8744449
0.20356052 0.088639803 0.87433326
0.20392081 0.088665538 0.87422079
0.20466942 0.088729128 0.87411505
0.20503694 0.088757925 0.87403262
-0.083948731 0.065587349 0.92778051
-0.083640844 0.06561143 0.92771041
-0.07964769 0.065936863 0.92696667
-0.079341471 0.065963104 0.92692566
-0.07903266 0.065987259 0.92685539
-0.076262563 0.066214897 0.92636323
-0.075957805 0.066243187 0.92634988
-0.075646043 0.066265374 0.92625117
-0.074719548 0.066340037 0.92606807
-0.074409842 0.066364273 0.92599756
-0.073174894 0.066465251 0.92577177
-0.072871596 0.066495664 0.92578709
-0.072565943 0.066523962 0.92577279
-0.072255671 0.066548176 0.92570144
-0.071945459 0.06657245 0.92563093
-0.071639597 0.066600837 0.92561764
-0.071329236 0.066625111 0.925547
-0.071014464 0.066645294 0.92541933
-0.070085019 0.066720188 0.92523563
-0.069780797 0.066750631 0.92524999
-0.069476485 0.066781096 0.92526472
-0.069165647 0.066805415 0.92519408
-0.068852663 0.06682764 0.92509437
-0.068539649 0.066849917 0.92499536
-0.068230808 0.066876344 0.9249537
-0.067921847 0.066902719 0.9249112
-0.067610681 0.066927008 0.92483968
-0.067299575 0.066951342 0.92476904
-0.066992491 0.06697984 0.92475551
-0.066681206 0.067004189 0.92468464
-0.066367775 0.067026436 0.92458481
-0.066056401 0.067050807 0.92451406
-0.065749049 0.067079328 0.92450058
-0.065439492 0.067105748 0.92445779
-0.065129846 0.067132168 0.92441499
-0.064822257 0.067160703 0.92440146
-0.064510494 0.067185104 0.92433065
-0.064196676 0.067207381 0.92423058
-0.063884825 0.067231767 0.92415965
-0.063576877 0.067260347 0.92414618
-0.063264936 0.067284748 0.92407525
-0.062950879 0.06730704 0.92397523
-0.062638819 0.067331463 0.92390424
-0.062330544 0.067360058 0.92389065
-0.062020212 0.067386538 0.92384779
-0.061709791 0.067413002 0.92380476
-0.0613994 0.067439586 0.92376304
-0.060774446 0.067488417 0.92362005
-0.060461909 0.067512862 0.923549
-0.060153067 0.067541517 0.92353529
-0.059840411 0.067565985 0.9234643
-0.059525788 0.067588322 0.92336416
-0.059213042 0.06761279 0.92329299
-0.058903843 0.067641459 0.92327917
-0.057344019 0.067770123 0.92300797
-0.057030767 0.067794636 0.92293686
-0.056092471 0.067870259 0.92275155
-0.05577901 0.067894787 0.92268026
-0.055468976 0.067923546 0.92266649
-0.055155367 0.067948096 0.92259526
-0.054839998 0.067970484 0.92249483
-0.054527938 0.067997105 0.92245162
-0.054217547 0.06802588 0.92243767
0.1880887 0.087776922 0.87734878
0.18845265 0.08780545 0.87726665
0.18881693 0.08783412 0.87718594
0.18919365 0.087868527 0.8771624
0.19360176 0.088226542 0.87632585
0.19396695 0.088255212 0.87624395
0.19471069 0.088318489 0.87613893
0.19506948 0.088344142 0.87602699
0.19543496 0.088372812 0.87594491
0.19581378 0.088407479 0.87592214
0.19617943 0.088436164 0.87584001
0.19653848 0.088461846 0.87572801
0.19690426 0.088490553 0.87564588
0.19728354 0.088525258 0.87562311
0.19764948 0.088553973 0.87554085
0.19800873 0.088579655 0.87542868
0.1983749 0.088608399 0.8753466
0.19875452 0.088643111 0.87532353
0.19912082 0.088671863 0.87524146
0.19947371 0.088694632 0.87510026
0.20057325 0.08878094 0.87485373
0.20094654 0.088812649 0.8748005
0.2013199 0.088844351 0.8747471
0.20170039 0.088879161 0.87472403
0.20206727 0.08890795 0.87464166
0.20242731 0.088933699 0.87452942
0.20280108 0.088965453 0.87447602
0.20317523 0.088997327 0.87442386
0.20354246 0.089026161 0.87434155
0.20390275 0.089051925 0.87422907
0.20465136 0.08911562 0.87412333
0.20501888 0.089144446 0.87404096
-0.083965153 0.065938905 0.92778808
-0.079357922 0.066315211 0.92693323
-0.076279014 0.066567354 0.92637026
-0.075971991 0.066593684 0.92632914
-0.075662524 0.066617928 0.9262588
-0.074736029 0.06669271 0.92607558
-0.074426323 0.066716969 0.92600513
-0.073191375 0.066818096 0.92577934
-0.072887987 0.066848494 0.92579347
-0.072580189 0.066874877 0.92575186
-0.072269976 0.066899158 0.92568099
-0.071961969 0.066925481 0.92563856
-0.071656108 0.06695392 0.92562521
-0.071345747 0.066978231 0.92555457
-0.071030945 0.066998422 0.9254269
-0.070101529 0.067073435 0.92524326
-0.069797307 0.067103937 0.92525756
-0.06949088 0.067132436 0.92524427
-0.069182187 0.067158818 0.92520165
-0.068869174 0.067181058 0.92510194
-0.068558246 0.067205414 0.92503113
-0.068247348 0.067229867 0.92496169
-0.067940474 0.067258313 0.92494714
-0.067627192 0.067280568 0.92484725
-0.067316085 0.067304939 0.92477661
-0.067006975 0.067331456 0.92473507
-0.066697717 0.067357883 0.92469221
-0.066384315 0.067380153 0.92459238
-0.066072941 0.067404538 0.92452163
-0.065765589 0.067433126 0.92450821
-0.065456033 0.067459591 0.92446542
-0.065146387 0.06748604 0.92442256
-0.06483677 0.067512579 0.9243809
-0.064527035 0.067539066 0.92433822
-0.064213246 0.067561366 0.9242382
-0.063901395 0.067585789 0.92416728
-0.063593417 0.067614421 0.92415375
-0.063281506 0.067638859 0.92408282
-0.06296742 0.067661166 0.9239828
-0.06265536 0.067685626 0.92391187
-0.062347114 0.067714274 0.92389822
-0.062036753 0.067740805 0.92385536
-0.061724454 0.067765236 0.92378402
-0.061414033 0.067791849 0.92374212
-0.061103523 0.067818388 0.92369944
-0.060791016 0.067842826 0.92362767
-0.060478479 0.067867309 0.92355663
-0.060169637 0.067896016 0.92354292
-0.059856981 0.067920513 0.92347193
-0.059542358 0.06794288 0.92337179
-0.059229612 0.067967378 0.92330062
-0.058920473 0.067996107 0.92328691
-0.05736059 0.068124957 0.92301559
-0.057047337 0.068149507 0.92294449
-0.05642426 0.068202846 0.92285943
-0.056109071 0.068225235 0.92275912
-0.05579561 0.068249807 0.92268789
-0.055485576 0.068278618 0.92267412
-0.055171967 0.06830319 0.92260283
-0.054858267 0.06832771 0.92253077
-0.054546207 0.068354383 0.9224878
-0.044182509 0.069202259 0.92058247
0.18917571 0.088253222 0.87717086
0.18953979 0.088281766 0.87708831
0.18991047 0.088313334 0.8770358
0.19064583 0.088373601 0.87690187
0.19211729 0.088494092 0.87663263
0.19247575 0.088519789 0.87652147
0.1928473 0.088551506 0.87646955
0.19321877 0.088583142 0.8764168
0.19358376 0.088611752 0.87633413
0.19394895 0.088640451 0.87625223
0.19469267 0.088703841 0.87614721
0.19505146 0.088729516 0.87603527
0.19541694 0.088758223 0.8759532
0.19579576 0.088792965 0.87593043
0.1961614 0.088821687 0.87584829
0.19652046 0.088847391 0.8757363
0.19688624 0.088876128 0.8756541
0.19726551 0.0889109 0.87563139
0.19763145 0.088939659 0.87554914
0.1979907 0.088965364 0.87543696
0.19835687 0.088994145 0.87535489
0.1987299 0.089025982 0.87530297
0.19910277 0.089057721 0.87524974
0.19945568 0.08908049 0.87510854
0.20055521 0.089166917 0.87486207
0.20092849 0.089198679 0.87480879
0.20130186 0.089230441 0.87475538
0.20167565 0.089262351 0.87470329
0.20204923 0.089294136 0.87464994
0.20240925 0.089319915 0.87453771
0.2027763 0.089348756 0.87445527
0.20315717 0.089383654 0.87443215
0.2035244 0.08941251 0.87434983
0.2046333 0.089502096 0.87413168
0.20500082 0.089530975 0.87404925
-0.083981574 0.066290453 0.92779559
-0.079374373 0.066667318 0.9269408
-0.075986207 0.066944197 0.92630875
-0.075679004 0.06697049 0.92626631
-0.07475251 0.067045368 0.92608321
-0.072902262 0.067199335 0.92577249
-0.072592229 0.06722375 0.92570305
-0.072286487 0.067252137 0.92568862
-0.07197845 0.067278512 0.92564613
-0.071672618 0.067307018 0.92563283
-0.071362257 0.067331351 0.92556214
-0.071047455 0.06735155 0.92543447
-0.07011804 0.067426674 0.92525083
-0.069811672 0.06745518 0.92523688
-0.069505274 0.067483708 0.92522335
-0.069196612 0.067510158 0.92518103
-0.068885684 0.067534491 0.92510951
-0.06857267 0.067556806 0.9250105
-0.068263859 0.067583323 0.92496884
-0.067954898 0.067609787 0.9249264
-0.067643732 0.067634135 0.92485487
-0.067330569 0.067656457 0.92475575
-0.067023456 0.067685068 0.92474216
-0.06671226 0.067709498 0.92467159
-0.066400856 0.067733854 0.92460001
-0.066089481 0.067758277 0.92452925
-0.0657821 0.067786917 0.92451578
-0.065472573 0.067813419 0.92447299
-0.06516093 0.067837819 0.92440176
-0.064851314 0.067864403 0.92435992
-0.064541578 0.067890942 0.92431742
-0.064229786 0.06791535 0.92424577
-0.063917935 0.06793981 0.9241749
-0.063609987 0.067968495 0.92416131
-0.063298047 0.06799297 0.92409045
-0.06298396 0.068015307 0.92399037
-0.06267193 0.068039782 0.92391944
-0.062363654 0.068068497 0.92390585
-0.062051475 0.068092979 0.9238348
-0.061739117 0.068117432 0.92376304
-0.061428696 0.068144016 0.92372042
-0.061118215 0.068170674 0.92367852
-0.060805768 0.068195157 0.92360711
-0.060495049 0.068221755 0.9235642
-0.060186207 0.068250515 0.92355049
-0.059873551 0.068275042 0.92347956
-0.059558928 0.068297431 0.92337942
-0.059246182 0.068321966 0.92330825
-0.058937043 0.068350747 0.92329454
-0.058625907 0.068377376 0.92325145
-0.057377189 0.068479799 0.92302322
-0.057063937 0.068504378 0.92295206
-0.056752473 0.068531126 0.92291021
-0.05644086 0.068557799 0.92286706
-0.056125671 0.068580225 0.92276675
-0.05581221 0.068604827 0.92269552
-0.055502176 0.068633683 0.92268175
-0.055190235 0.068660378 0.92263854
-0.054876536 0.068684965 0.92256689
0.18951549 0.088663526 0.87706733
0.18988608 0.088695116 0.87701452
0.19025707 0.088726863 0.87696308
0.19062784 0.088758454 0.87691009
0.19099233 0.088787101 0.87682796
0.1913635 0.088818826 0.8767761
0.19209296 0.088876188 0.87661195
0.19245128 0.088901885 0.87650025
0.19282904 0.0889365 0.87647659
0.19319429 0.088965319 0.87639564
0.19355932 0.088994004 0.87631333
0.19393094 0.089025699 0.87626052
0.19467466 0.089089185 0.8761555
0.19503345 0.089114882 0.87604356
0.19539893 0.089143634 0.87596142
0.19577774 0.089178436 0.87593871
0.19614339 0.089207202 0.87585658
0.19650245 0.089232937 0.87574458
0.19686823 0.089261711 0.87566239
0.19724749 0.08929655 0.87563968
0.19761343 0.089325339 0.87555742
0.19797267 0.089351073 0.87544525
0.19833218 0.089376897 0.87533391
0.19871174 0.089411728 0.87531072
0.19907808 0.089440562 0.8752287
0.19943765 0.089466356 0.87511683
0.20091045 0.089584708 0.87481707
0.2016508 0.08964546 0.87468213
0.20202442 0.089677334 0.87462914
0.20239121 0.089706123 0.87454599
0.20275825 0.089735001 0.87446356
0.20313913 0.089769967 0.87444043
0.20350634 0.089798868 0.87435812
0.20498274 0.089917496 0.87405753
-0.075078577 0.067373663 0.9261604
-0.074771285 0.067400105 0.92611903
-0.072300792 0.067603074 0.925668
-0.07199496 0.06763155 0.9256537
-0.071689129 0.067660101 0.92564034
-0.071378767 0.067684472 0.92556977
-0.071063966 0.067704678 0.92544204
-0.070132405 0.067777865 0.92523044
-0.069826066 0.067806385 0.92521608
-0.069519579 0.067834921 0.92520171
-0.06920889 0.067859404 0.9251321
-0.068897992 0.067883797 0.92506105
-0.068587065 0.06790816 0.92498964
-0.068278223 0.067934662 0.92494726
-0.067969352 0.067961223 0.92490542
-0.067656189 0.067983575 0.92480648
-0.06734705 0.068010047 0.9247632
-0.067039937 0.068038642 0.92474896
-0.066728741 0.068063155 0.92467904
-0.06641537 0.068085507 0.92457962
-0.066107988 0.068114102 0.9245649
-0.06579864 0.068140708 0.92452335
-0.065487087 0.068165191 0.92445242
-0.065175474 0.068189606 0.92438096
-0.064865828 0.068216152 0.92433828
-0.064556152 0.068242796 0.9242965
-0.06424439 0.068267263 0.92422533
-0.063934475 0.068293832 0.92418247
-0.063626528 0.068322569 0.92416894
-0.063314587 0.068347074 0.92409801
-0.06300053 0.068369433 0.923998
-0.06268847 0.068393946 0.92392707
-0.062380224 0.068422712 0.92391348
-0.062068015 0.068447225 0.92384243
-0.06175378 0.068469606 0.92374241
-0.061445236 0.068498313 0.92372763
-0.061132878 0.068522938 0.92365772
-0.060822338 0.068549559 0.92361474
-0.060511619 0.068576202 0.92357183
-0.060202777 0.068605013 0.92355812
-0.059890121 0.06862957 0.92348719
-0.059575498 0.068651982 0.92338699
-0.059264541 0.068678647 0.92334402
-0.058953613 0.068705387 0.92330217
-0.058642507 0.06873206 0.92325902
-0.058331281 0.068758741 0.92321604
-0.057393759 0.068834633 0.92303085
-0.057078779 0.068857126 0.92293131
-0.056767344 0.068883903 0.92288923
-0.056455702 0.068910643 0.92284638
-0.056142241 0.068935201 0.92277437
-0.05582881 0.06895984 0.92270309
-0.055518776 0.068988748 0.92268932
-0.055206835 0.069015495 0.92264616
-0.050192058 0.069425248 0.9217025
0.18949752 0.089048229 0.87707555
0.18986185 0.089076936 0.87699389
0.19023909 0.089111671 0.8769713
0.19060352 0.089140363 0.87688935
0.19096795 0.089169018 0.87680686
0.19134526 0.089203671 0.87678325
0.19171022 0.089232497 0.87670237
0.19206859 0.089258254 0.87659115
0.19243328 0.089286931 0.87650853
0.19281104 0.089321606 0.87648487
0.19317628 0.089350477 0.87640387
0.1935413 0.089379199 0.87632161
0.19391294 0.089410946 0.87626874
0.19429131 0.089445755 0.87624586
0.19465666 0.089474529 0.87616378
0.19501543 0.089500263 0.87605178
0.19538091 0.089529045 0.87596971
0.19575973 0.089563914 0.875947
0.19612537 0.08959271 0.87586486
0.19648442 0.089618474 0.87575287
0.1968502 0.089647286 0.87567067
0.19722946 0.089682184 0.87564796
0.1975954 0.089711025 0.87556571
0.19794816 0.089733817 0.87542468
0.19831413 0.089762598 0.87534195
0.19869359 0.089797467 0.87531841
0.19906002 0.089826398 0.87523693
0.19941303 0.089849256 0.8750962
0.2031143 0.090153292 0.87441969
0.20348829 0.090185225 0.8743664
-0.076944798 0.067574166 0.92650652
-0.075404704 0.067701973 0.92623866
-0.075097412 0.067728445 0.92619729
-0.074790061 0.067754857 0.92615503
-0.07447806 0.067777112 0.92605579
-0.072315037 0.067953959 0.92564702
-0.072009295 0.067982525 0.92563319
-0.07170561 0.068013199 0.92564797
-0.071395278 0.068037592 0.92557734
-0.071080476 0.06805782 0.92544961
-0.069840461 0.068157598 0.92519546
-0.069531828 0.068184063 0.92515242
-0.069221139 0.068208583 0.92508268
-0.068912446 0.068235122 0.92504036
-0.068601519 0.068259507 0.9249689
-0.068292648 0.068286031 0.92492628
-0.067983776 0.068312652 0.92488474
-0.067674756 0.068339191 0.924842
-0.06736362 0.068363637 0.92477095
-0.06705451 0.068390273 0.92472923
-0.066745311 0.068416841 0.92468679
-0.066435933 0.068443365 0.92464346
-0.066126585 0.068469949 0.92460102
-0.065817207 0.068496607 0.92455935
-0.065503627 0.068519004 0.92446005
-0.065190017 0.068541348 0.92436016
-0.064880371 0.068567954 0.92431748
-0.064570725 0.068594642 0.92427582
-0.06426093 0.068621241 0.92423296
-0.063952982 0.068649925 0.92421806
-0.063643068 0.068676643 0.92417657
-0.063331157 0.068701185 0.92410564
-0.06301707 0.068723559 0.92400563
-0.06270501 0.068748109 0.9239347
-0.062396795 0.068776928 0.92392105
-0.062084585 0.068801478 0.92385006
-0.061772227 0.06882599 0.9237783
-0.061461806 0.06885267 0.92373562
-0.061151326 0.068879411 0.92369378
-0.060838878 0.06890396 0.92362237
-0.060528189 0.068930641 0.92357945
-0.060219347 0.068959512 0.92356575
-0.059906691 0.068984114 0.92349476
-0.059593916 0.069008648 0.92342293
-0.059282959 0.069035374 0.92338008
-0.058972001 0.069062158 0.92333812
-0.058659077 0.069086753 0.92326665
-0.058347881 0.069113478 0.92322367
-0.057408601 0.06918738 0.92301047
-0.05709362 0.069209836 0.92291027
-0.056783825 0.06923873 0.92289561
-0.056470543 0.069263451 0.9228254
-0.056157172 0.069288075 0.92275387
-0.05584538 0.069314852 0.92271072
-0.055535376 0.06934382 0.92269695
-0.055223435 0.069370605 0.92265379
-0.050523311 0.069756232 0.92178202
-0.050207138 0.069778778 0.92168152
0.18947953 0.089432932 0.87708384
0.18984386 0.089461677 0.87700212
0.1902211 0.089496471 0.87697959
0.19058554 0.089525208 0.87689763
0.19094996 0.089553908 0.87681514
0.19132094 0.08958564 0.87676239
0.19169222 0.089617491 0.87671065
0.19205695 0.089646235 0.87662846
0.19242175 0.089674987 0.87654626
0.19279329 0.089706853 0.87649435
0.19316477 0.089738645 0.8764416
0.19352974 0.089767367 0.87635893
0.19389492 0.089796185 0.87627703
0.19427329 0.089831054 0.87625414
0.19463864 0.089859881 0.87617207
0.19499741 0.08988563 0.87606007
0.1953629 0.089914463 0.87597799
0.19574171 0.089949392 0.87595522
0.19610736 0.089978233 0.87587315
0.1964664 0.090004012 0.87576115
0.19683218 0.090032868 0.87567896
0.19721143 0.090067834 0.87565625
0.19757737 0.090096705 0.87557399
0.19793661 0.090122484 0.87546182
0.19829613 0.090148367 0.87535042
0.19867568 0.090183325 0.87532729
0.19904205 0.090212256 0.87524545
0.19940157 0.090238087 0.8751334
-0.084033459 0.067347161 0.92784655
-0.077270508 0.067902245 0.9265846
-0.076963633 0.067928649 0.9265424
-0.075728387 0.068028137 0.92628849
-0.075425774 0.068058744 0.92630303
-0.075118512 0.068085246 0.9262616
-0.074808836 0.068109639 0.92619097
-0.074494541 0.068129823 0.92606342
-0.072331548 0.068306923 0.92565453
-0.072025806 0.068335548 0.92564082
-0.07172212 0.068366282 0.92565554
-0.071411759 0.068390712 0.92558491
-0.071096987 0.068410948 0.92545724
-0.068307072 0.068637408 0.92490566
-0.068000317 0.068666168 0.92489231
-0.067691267 0.068692751 0.92484963
-0.06738013 0.068717226 0.92477852
-0.06707105 0.068743899 0.92473686
-0.066763848 0.068772599 0.92472243
-0.06645453 0.068799205 0.92467964
-0.066145182 0.068825901 0.92463791
-0.065835744 0.068852529 0.92459536
-0.065522194 0.068874933 0.92449576
-0.065206558 0.068895198 0.92436773
-0.064894915 0.068919756 0.92429698
-0.064587265 0.068948574 0.92428339
-0.064279407 0.068977341 0.9242689
-0.06397149 0.0690061 0.92425424
-0.063661575 0.069032833 0.92421257
-0.063347697 0.069055289 0.92411327
-0.06303364 0.069077685 0.9240132
-0.062723488 0.069104373 0.9239704
-0.062413335 0.069131143 0.92392862
-0.062103003 0.069157839 0.92388582
-0.061790705 0.069182411 0.92381442
-0.061480284 0.069209196 0.92377257
-0.061169773 0.069235913 0.9237299
-0.060857296 0.069260471 0.92365807
-0.060546607 0.069287196 0.92361516
-0.060235918 0.069314018 0.92357337
-0.059925109 0.069340751 0.92353034
-0.059612334 0.06936536 0.92345899
-0.059299588 0.069390066 0.9233889
-0.058990389 0.069418952 0.92337424
-0.058677435 0.069443539 0.92330235
-0.058364451 0.069468208 0.92323124
-0.057425201 0.069542207 0.9230181
-0.05711022 0.069564685 0.9229179
-0.056800425 0.069593631 0.9229033
-0.056487143 0.069618382 0.92283303
-0.056173742 0.06964305 0.9227615
-0.05586198 0.069669865 0.92271835
-0.055551946 0.069698885 0.92270458
-0.055240035 0.069725715 0.92266142
-0.054928035 0.069752544 0.92261821
-0.050539941 0.070111923 0.92178965
-0.050223768 0.070134491 0.92168921
-0.049912214 0.070163593 0.92167437
0.18911003 0.089794897 0.87723285
0.18946154 0.089817643 0.87709206
0.18982588 0.089846425 0.87701041
0.19020312 0.089881286 0.87698781
0.19057387 0.089913033 0.87693489
0.19093198 0.089938797 0.87682354
0.1912968 0.08996769 0.87674248
0.19167428 0.0900025 0.87671906
0.1920453 0.090034239 0.87666571
0.19241655 0.090066038 0.87661272
0.19278178 0.090094991 0.87653208
0.19315319 0.090126812 0.87647909
0.19351172 0.090152577 0.87636721
0.19387692 0.090181425 0.87628531
0.19424887 0.090213396 0.87623346
0.19462062 0.090245225 0.87618029
0.19497941 0.090271004 0.87606835
0.19534488 0.090299867 0.87598628
0.1957237 0.090334862 0.87596351
0.19608933 0.090363741 0.87588143
0.19644839 0.09038955 0.87576944
0.19681415 0.090418451 0.87568724
0.19718687 0.090450488 0.87563545
0.19755934 0.090482391 0.87558228
0.19791859 0.0905082 0.87547004
0.19828475 0.090537131 0.87538803
0.19865777 0.090569168 0.87533599
0.19903064 0.090601124 0.87528288
0.19938354 0.090623952 0.87514168
-0.084049881 0.067698732 0.9278543
-0.077289313 0.068256684 0.92662024
-0.076980084 0.068281062 0.92654997
-0.075749516 0.068384886 0.92635298
-0.075446934 0.068415605 0.92636788
-0.075139582 0.068442099 0.92632568
-0.074827611 0.068464398 0.9262265
-0.074511021 0.068482533 0.92607093
-0.072044462 0.06869065 0.92567641
-0.071738631 0.068719365 0.92566311
-0.071428269 0.06874384 0.92559248
-0.071113497 0.068764076 0.92546481
-0.070492476 0.068813011 0.92532301
-0.070184112 0.068839654 0.92528152
-0.068016827 0.069019675 0.92489988
-0.06770575 0.069044203 0.92482924
-0.067396641 0.069070801 0.92478597
-0.067089528 0.069099575 0.92477173
-0.066780388 0.069126271 0.92472988
-0.06647107 0.069152951 0.9246875
-0.066163778 0.069181792 0.92467403
-0.065854281 0.069208466 0.92463124
-0.065538734 0.069228761 0.92450339
-0.065223098 0.069249041 0.92437536
-0.064911455 0.069273636 0.92430454
-0.064605772 0.069304608 0.92431897
-0.064297944 0.069333464 0.92430496
-0.063990057 0.069362335 0.92429119
-0.063680112 0.069389068 0.92424858
-0.063366145 0.069411516 0.92414886
-0.063052118 0.06943395 0.92404914
-0.062741995 0.06946069 0.92400646
-0.062431812 0.069487505 0.92396462
-0.062119544 0.069512099 0.92389339
-0.06181106 0.069540955 0.92387849
-0.061498791 0.069565676 0.92380869
-0.061188221 0.069592431 0.92376578
-0.060875714 0.069617026 0.92369401
-0.060565054 0.06964381 0.92365134
-0.060254306 0.069670655 0.92360938
-0.059941679 0.069695294 0.92353797
-0.059628904 0.069719933 0.92346656
-0.059316158 0.069744676 0.92339647
-0.059006989 0.069773614 0.92338181
-0.058694005 0.069798231 0.92330998
-0.058381021 0.069822937 0.92323887
-0.05775851 0.069876656 0.923154
-0.057443529 0.069899157 0.92305368
-0.057130307 0.069923833 0.92298222
-0.056817085 0.069948621 0.92291206
-0.056505471 0.069975488 0.92286921
-0.05619204 0.070000142 0.9227972
-0.05587858 0.070024878 0.92272598
-0.055568546 0.070053957 0.92271221
-0.055256635 0.070080824 0.92266899
-0.054942936 0.070105545 0.92259741
-0.051498383 0.070390984 0.92198288
-0.050241917 0.070492387 0.92172545
-0.049928874 0.070519432 0.92168313
-0.046786219 0.07077875 0.92110884
0.1879871 0.090087146 0.8774274
0.18835738 0.090118937 0.87737495
0.18908581 0.09017662 0.87721217
0.18944357 0.090202339 0.87710035
0.18980789 0.090231165 0.87701863
0.19018513 0.090266094 0.8769961
0.19054955 0.090294898 0.87691414
0.19091398 0.090323672 0.87683165
0.19127865 0.090352535 0.87675005
0.19165623 0.090387456 0.87672716
0.19202736 0.0904193 0.87667412
0.19313519 0.090512 0.87648737
0.19349372 0.090537772 0.87637544
0.19385241 0.09056364 0.87626421
0.19422431 0.09059564 0.87621218
0.19459616 0.090627551 0.87615943
0.1949614 0.090656377 0.87607664
0.19532686 0.090685286 0.87599456
0.19570568 0.090720341 0.87597179
0.19607131 0.090749256 0.87588966
0.19643036 0.090775095 0.87577772
0.19678956 0.090801001 0.87566632
0.1971622 0.090833046 0.87561417
0.19753474 0.090865031 0.8755613
0.19790056 0.090893902 0.87547833
0.19826671 0.090922877 0.87539631
0.19864632 0.090957977 0.87537324
0.19901261 0.090986975 0.87529117
0.1993655 0.091009811 0.87514997
-0.084066331 0.068050273 0.92786169
-0.077305794 0.068609066 0.92662781
-0.076996565 0.068633489 0.92655754
-0.076070845 0.068708852 0.92637455
-0.075770646 0.068741672 0.92641717
-0.075465709 0.068770356 0.92640388
-0.075158387 0.068796903 0.92636156
-0.074844092 0.068817109 0.92623401
-0.074529707 0.068837322 0.92610657
-0.073602557 0.068912871 0.92592406
-0.072058797 0.069041595 0.92565596
-0.071755141 0.069072463 0.92567068
-0.07144478 0.069096953 0.92560005
-0.071132153 0.069119297 0.92550039
-0.070821673 0.069143802 0.92542958
-0.070511192 0.069168389 0.92535985
-0.070202768 0.069195025 0.92531753
-0.068033338 0.069373183 0.92490751
-0.067724317 0.069399856 0.92486477
-0.067413181 0.069424406 0.92479372
-0.067106128 0.069453269 0.92478013
-0.066796899 0.069479965 0.92473763
-0.066489637 0.069508791 0.92472315
-0.066182345 0.069537692 0.92470974
-0.065870821 0.069562301 0.92463887
-0.065555245 0.069582604 0.92451096
-0.065239638 0.069602892 0.92438293
-0.064927995 0.069627509 0.92431211
-0.064622313 0.06965854 0.92432654
-0.064316481 0.069689594 0.9243409
-0.064008594 0.069718547 0.92432737
-0.063384593 0.069767743 0.92418456
-0.063070625 0.069790252 0.92408526
-0.062760502 0.069817081 0.92404336
-0.06245026 0.069843873 0.92400074
-0.062139928 0.069870621 0.92395729
-0.06182763 0.069895297 0.92388654
-0.061206669 0.069948949 0.92380142
-0.060894132 0.069973603 0.92373019
-0.060583532 0.070000492 0.92368829
-0.059958249 0.070049837 0.9235456
-0.059643656 0.070072353 0.92344582
-0.059332669 0.070099205 0.92340297
-0.059021711 0.070126116 0.92336094
-0.058708817 0.070150807 0.92328954
-0.058397621 0.070177659 0.9232465
-0.05777508 0.070231475 0.92316163
-0.057461888 0.070256136 0.92308956
-0.057150394 0.070283048 0.92304683
-0.056837171 0.070307866 0.92297667
-0.0565238 0.070332594 0.92290515
-0.056208611 0.070355117 0.92280483
-0.05589518 0.070379891 0.9227336
-0.055585146 0.070409022 0.92271984
-0.055271566 0.070433803 0.92264861
-0.054959536 0.070460677 0.92260486
-0.054335415 0.070514619 0.9225198
-0.054021597 0.070539385 0.92244816
-0.051829398 0.070721753 0.92206228
-0.051515013 0.070746541 0.92199033
-0.0505732 0.070823275 0.9218049
-0.050260127 0.070850283 0.92176157
-0.046801388 0.07113269 0.92108798
0.18796287 0.09046869 0.87740654
0.18833311 0.090500504 0.87735379
0.18870366 0.090532452 0.87730223
0.18906784 0.090561293 0.87722039
0.18942559 0.090587042 0.87710857
0.18978992 0.090615906 0.87702692
0.19016714 0.090650894 0.87700438
0.19053157 0.09067975 0.87692237
0.1908896 0.090705521 0.87681067
0.19126055 0.090737402 0.87675774
0.19163817 0.090772413 0.87673503
0.19201581 0.090807386 0.87671191
0.19346929 0.090919979 0.87635469
0.19382793 0.090945818 0.87624305
0.19419964 0.090977788 0.87619036
0.19457161 0.091009833 0.87613833
0.19493695 0.091038741 0.87605596
0.19530886 0.091070689 0.87600279
0.19568767 0.091105811 0.87598008
0.1960533 0.091134779 0.87589794
0.19640583 0.091157623 0.87575704
0.19676495 0.091183499 0.87564516
0.19713739 0.091215529 0.87559235
0.19751009 0.091247641 0.87554026
0.19787604 0.091276601 0.87545776
0.19824868 0.091308624 0.8754046
0.19862172 0.09134078 0.87535262
0.19899458 0.091372818 0.87529945
0.19934747 0.091395676 0.87515819
-0.077322274 0.068961456 0.92663538
-0.077013046 0.068985902 0.92656511
-0.07608965 0.06906347 0.92641008
-0.075787127 0.069094278 0.92642474
-0.075484514 0.069125108 0.92643958
-0.075174868 0.069149598 0.92636913
-0.074860573 0.069169819 0.92624164
-0.074546218 0.06919004 0.92611414
-0.073619038 0.069265693 0.92593169
-0.072075307 0.069394618 0.92566353
-0.071771652 0.069425546 0.92567825
-0.07146129 0.069450073 0.92560768
-0.07115078 0.069474563 0.92553622
-0.070842505 0.069501236 0.9254939
-0.070532054 0.069525868 0.92542434
-0.070221454 0.069550402 0.92535335
-0.068049878 0.069726698 0.92491508
-0.067740858 0.069753408 0.9248724
-0.067431778 0.069780126 0.92482972
-0.067122668 0.069806933 0.92478812
-0.066815466 0.069835797 0.92477351
-0.066506177 0.06986253 0.92473078
-0.066198885 0.069891475 0.92471731
-0.065887362 0.069916122 0.92464644
-0.065571785 0.069936432 0.92451859
-0.065256178 0.069956742 0.92439055
-0.064946532 0.069983512 0.92434776
-0.064638853 0.070012487 0.92433417
-0.064333022 0.070043601 0.92434853
-0.063401163 0.070121877 0.92419213
-0.063089103 0.070146546 0.9241212
-0.062779009 0.07017345 0.92407954
-0.062156469 0.070224918 0.9239651
-0.06184426 0.070249669 0.92389488
-0.059974819 0.070404381 0.92355317
-0.059658349 0.070424758 0.92342508
-0.059347421 0.07045164 0.9233821
-0.059036493 0.070478603 0.92334026
-0.058725387 0.070505492 0.92329711
-0.058414191 0.070532389 0.92325413
-0.058104753 0.070561528 0.92324036
-0.056542128 0.070689701 0.92294085
-0.05622521 0.070710108 0.92281246
-0.05591175 0.070734903 0.92274123
-0.055601746 0.070764095 0.92272747
-0.055289835 0.070791051 0.92268425
-0.054976135 0.070815831 0.92261267
-0.054665834 0.070845038 0.92259866
-0.054352045 0.07086987 0.92252755
-0.054038167 0.070894629 0.92245549
-0.053725898 0.070921615 0.92241228
-0.05341202 0.070946552 0.92234224
-0.05059135 0.071181126 0.92184061
-0.050276756 0.071206003 0.9217692
-0.047134817 0.071466118 0.92119604
-0.046818048 0.071488827 0.92109561
-0.04650557 0.07151816 0.92108059
0.1879449 0.090853229 0.87741482
0.18830891 0.090882085 0.87733299
0.18868569 0.090917096 0.87731051
0.18904985 0.090945974 0.87722868
0.1894076 0.090971753 0.87711686
0.18977194 0.091000646 0.87703514
0.19014916 0.091035701 0.87701261
0.19051358 0.091064587 0.87693065
0.19087161 0.091090396 0.8768189
0.19123624 0.091119312 0.87673712
0.19162017 0.091157407 0.87674332
0.19199778 0.091192424 0.87671995
0.19345129 0.091305166 0.87636298
0.19380347 0.091328003 0.87622219
0.19417511 0.091359988 0.87616915
0.19454712 0.091392107 0.87611735
0.19491893 0.0914241 0.87606424
0.19529085 0.0914561 0.87601107
0.19566964 0.091491297 0.87598836
0.19603528 0.091520287 0.87590623
0.19638781 0.091543153 0.87576532
0.19711925 0.091601081 0.87560016
0.19748548 0.091630243 0.87551934
0.19785802 0.091662295 0.87546611
0.19822401 0.0916913 0.87538356
0.198597 0.091723494 0.8753314
0.19896989 0.091755584 0.87527841
0.19932944 0.091781534 0.87516654
-0.078261286 0.069236211 0.92679739
-0.077338725 0.069313839 0.92664295
-0.077029526 0.069338329 0.92657268
-0.075803608 0.069446877 0.92643231
-0.07549867 0.069475658 0.92641902
-0.075191349 0.069502294 0.9263767
-0.074877053 0.06952253 0.92624915
-0.072399795 0.069720954 0.92571348
-0.072093964 0.069749758 0.92569917
-0.071788132 0.069778636 0.92568588
-0.071479917 0.069805309 0.92564321
-0.071169496 0.069829874 0.92557234
-0.07086125 0.069856636 0.92553079
-0.070552886 0.069883369 0.92548841
-0.07024008 0.069905795 0.92538911
-0.068066388 0.070080213 0.92492265
-0.067757368 0.070106968 0.92487997
-0.067448318 0.070133723 0.92483735
-0.067141235 0.070162706 0.92482382
-0.066832006 0.070189491 0.92478108
-0.066522717 0.070216261 0.92473835
-0.066213369 0.070243143 0.9246968
-0.065903902 0.070269942 0.92465401
-0.065588325 0.070290275 0.92452615
-0.065276712 0.070314877 0.92445457
-0.064965069 0.070339561 0.92438388
-0.06465739 0.070368595 0.92437017
-0.064349562 0.070397608 0.9243561
-0.064041674 0.07042668 0.92434257
-0.063417703 0.070476003 0.92419976
-0.063105673 0.070500709 0.92412883
-0.062797457 0.070529804 0.92411524
-0.062485307 0.07055451 0.92404425
-0.062173039 0.070579186 0.92397249
-0.06186074 0.070603929 0.92390174
-0.061552227 0.070633046 0.92388803
-0.061239779 0.070657745 0.92381668
-0.060929149 0.070684649 0.92377377
-0.05999139 0.070758924 0.9235608
-0.059674919 0.070779316 0.92343265
-0.059363991 0.070806235 0.92338967
-0.059053063 0.070833243 0.92334783
-0.058741957 0.070860177 0.92330474
-0.058430761 0.070887119 0.92326176
-0.058121353 0.070916317 0.92324799
-0.056558698 0.071044669 0.92294848
-0.05624181 0.071065083 0.92282009
-0.055928349 0.071089916 0.9227488
-0.055618346 0.071119159 0.9227351
-0.055306435 0.07114616 0.92269188
-0.054994434 0.071173169 0.92264873
-0.054682463 0.071200266 0.92260671
-0.054054767 0.071249902 0.92246312
-0.05373922 0.071272559 0.92236346
-0.0534302 0.071304031 0.92237753
-0.050607979 0.071536817 0.92184824
-0.050293386 0.071561724 0.92177689
-0.046836168 0.071847178 0.92113179
-0.04652229 0.071874425 0.92108929
-0.041162342 0.072317556 0.9200964
0.18792693 0.091237761 0.87742305
0.18829092 0.091266662 0.87734127
0.1886615 0.091298722 0.87728977
0.18903188 0.091330655 0.8772369
0.18938963 0.091356456 0.87712514
0.18975395 0.091385394 0.87704343
0.19013117 0.091420509 0.8770209
0.1904956 0.09144944 0.87693894
0.19085363 0.091475271 0.87682718
0.19121824 0.091504224 0.87674534
0.19159587 0.091539368 0.87672269
0.19197337 0.091574408 0.87669891
0.19308117 0.09166754 0.87651217
0.19343328 0.091690361 0.87637126
0.19378546 0.091713205 0.87623042
0.19415069 0.091742218 0.87614852
0.1945291 0.091777414 0.87612563
0.19490092 0.091809459 0.87607253
0.19527283 0.091841519 0.87601936
0.19565162 0.091876775 0.87599665
0.19601727 0.091905802 0.87591451
0.1963698 0.091928676 0.87577361
0.1967289 0.091954604 0.87566173
0.19710134 0.091986738 0.87560892
0.19747405 0.092018954 0.87555683
0.19857872 0.092109144 0.87533855
0.19894516 0.092138335 0.87525737
-0.077355206 0.069666222 0.92665052
-0.077045977 0.069690742 0.92658025
-0.075815439 0.069795206 0.92638326
-0.075512856 0.069826178 0.92639816
-0.07520324 0.06985075 0.92632806
-0.074893564 0.069875233 0.92625678
-0.072418481 0.070076071 0.92574924
-0.072110474 0.070102789 0.92570674
-0.071804643 0.070131727 0.92569345
-0.071496427 0.070158452 0.92565084
-0.071188211 0.070185184 0.92560828
-0.070879966 0.070212021 0.92556691
-0.070571542 0.070238762 0.92552423
-0.070256591 0.070259064 0.92539668
-0.06994161 0.070279352 0.92526883
-0.069011539 0.07035546 0.9250859
-0.068082929 0.070433721 0.92493027
-0.067773908 0.070460521 0.92488754
-0.067464828 0.07048732 0.92484492
-0.067157775 0.070516355 0.92483139
-0.066848546 0.070543185 0.92478871
-0.066537172 0.070567846 0.92471755
-0.066227853 0.070594758 0.92467588
-0.065918416 0.070621595 0.92463332
-0.065608889 0.070648417 0.92459017
-0.065297276 0.070673101 0.92451918
-0.064985663 0.070697889 0.92444921
-0.064675897 0.070724748 0.92440635
-0.064366072 0.0707516 0.92436337
-0.064056247 0.070778549 0.92432159
-0.063746303 0.070805453 0.92427897
-0.063434273 0.070830137 0.92420733
-0.063122213 0.070854872 0.9241364
-0.062814027 0.070884019 0.92412281
-0.062501848 0.070908755 0.92405182
-0.062187672 0.070931293 0.9239518
-0.06187731 0.070958205 0.92390889
-0.061566889 0.070985228 0.92386717
-0.061256349 0.071012147 0.92382425
-0.060945719 0.071039096 0.92378139
-0.06000796 0.071113475 0.92356837
-0.059693366 0.071136057 0.92346859
-0.059382409 0.071163028 0.92342573
-0.059071451 0.071190067 0.92338383
-0.058758557 0.071214862 0.92331237
-0.058447361 0.071241848 0.92326939
-0.058137923 0.071271099 0.92325562
-0.056575298 0.071399644 0.92295611
-0.05625838 0.071420059 0.92282772
-0.055944949 0.071444929 0.92275643
-0.055634946 0.071474224 0.92274272
-0.055323035 0.071501277 0.92269951
-0.055011034 0.071528323 0.92265636
-0.054069728 0.07160297 0.92244267
-0.053757459 0.071630016 0.92239904
-0.053445131 0.071657136 0.92235625
-0.050624609 0.071892507 0.92185587
-0.050310016 0.071917459 0.92178452
-0.041179031 0.072674386 0.92010403
-0.04086253 0.072699487 0.92003214
0.18498729 0.09138485 0.87802589
0.1853568 0.091416761 0.87797338
0.18755762 0.091599509 0.87757188
0.18790896 0.0916223 0.87743133
0.18826668 0.091648184 0.87732023
0.18863717 0.091680273 0.87726855
0.18900761 0.091712274 0.87721598
0.18937165 0.091741152 0.87713337
0.18973596 0.091770142 0.87705171
0.19011319 0.091805324 0.87702918
0.19047761 0.091834284 0.87694716
0.19083564 0.091860138 0.87683547
0.19120026 0.091889136 0.87675363
0.19157788 0.091924347 0.87673098
0.19194898 0.091956392 0.87667805
0.19232653 0.091991477 0.87665403
0.19269177 0.092020638 0.87657344
0.19306317 0.092052713 0.87652045
0.19341528 0.092075557 0.87637949
0.19376746 0.092098407 0.8762387
0.19413267 0.092127457 0.87615681
0.1945111 0.092162721 0.87613392
0.1948829 0.092194825 0.87608081
0.19525482 0.092226923 0.87602764
0.19563361 0.092262246 0.87600493
0.19599923 0.092291325 0.8759228
0.19635828 0.092317253 0.8758108
0.19671749 0.092343263 0.87569946
0.1970901 0.092375524 0.87564731
0.19746263 0.092407718 0.87559444
0.19782196 0.092433684 0.87548262
0.19892713 0.092524163 0.8752656
-0.077371687 0.070018612 0.92665809
-0.075522363 0.07017234 0.9263202
-0.075215101 0.07019911 0.92627859
-0.074905455 0.070223674 0.92620802
-0.072742909 0.070402317 0.92579931
-0.072434962 0.070429064 0.92575681
-0.072126955 0.070455827 0.92571431
-0.071821153 0.07048481 0.92570102
-0.071512938 0.07051158 0.92565835
-0.071204722 0.070538357 0.92561585
-0.070898592 0.070567369 0.92560256
-0.070588052 0.070592023 0.92553186
-0.070273101 0.070612334 0.92540431
-0.06995815 0.070632637 0.9252764
-0.069338888 0.070684195 0.92516434
-0.069030136 0.070711017 0.92512178
-0.068099439 0.070787229 0.92493784
-0.067790419 0.070814073 0.92489517
-0.067481369 0.070840918 0.92485249
-0.067174315 0.070870012 0.92483902
-0.06686303 0.070894718 0.92476815
-0.066551685 0.070919387 0.92469662
-0.066242337 0.070946269 0.92465419
-0.065934956 0.070975386 0.92464048
-0.065625399 0.071002297 0.9245981
-0.065315902 0.071029276 0.92455631
-0.065006196 0.071056195 0.92451382
-0.064694434 0.071080878 0.92444217
-0.064380676 0.071103416 0.92434251
-0.064070761 0.071130358 0.92430001
-0.063760877 0.071157351 0.92425817
-0.063448906 0.071182109 0.92418689
-0.063138783 0.071209036 0.92414403
-0.062830567 0.071238235 0.92413044
-0.062518418 0.071263015 0.92405945
-0.062204242 0.071285561 0.92395943
-0.061891943 0.071310356 0.92388844
-0.061583459 0.071339585 0.9238748
-0.061272919 0.071366549 0.92383188
-0.06096229 0.071393542 0.92378902
-0.060026318 0.071470194 0.92360419
-0.059711754 0.071492814 0.92350465
-0.059400886 0.071519904 0.92346269
-0.059089869 0.071546935 0.92341989
-0.058776885 0.071571723 0.92334807
-0.058463931 0.071596578 0.92327696
-0.058154523 0.071625881 0.92326325
-0.057843179 0.071652927 0.92322022
-0.056591898 0.071754612 0.92296368
-0.05627498 0.071775049 0.92283535
-0.055961549 0.071799941 0.92276406
-0.055651546 0.071829297 0.92275035
-0.055339634 0.071856387 0.92270714
-0.055027634 0.071883477 0.92266393
-0.054403514 0.071937777 0.92257881
-0.054089636 0.07196264 0.92250675
-0.053775698 0.071987562 0.9224354
-0.053463459 0.072014757 0.92239308
-0.050641239 0.072248198 0.9218635
-0.050328165 0.072275393 0.92182028
-0.041195691 0.073031224 0.92011166
0.18351045 0.091650322 0.87833118
0.18496934 0.091769055 0.87803411
0.18533276 0.091797993 0.87795258
0.18570872 0.091833122 0.87793022
0.18753965 0.091984034 0.87758011
0.18788479 0.092003807 0.87741059
0.18824241 0.092029661 0.87729913
0.18861273 0.092061728 0.87724668
0.18898331 0.09209387 0.87719488
0.18934743 0.09212283 0.87711281
0.18971798 0.092154875 0.87705994
0.19008891 0.092187077 0.87700844
0.19045962 0.092219129 0.87695545
0.19081765 0.092245005 0.87684369
0.1911886 0.092277102 0.87679088
0.19155988 0.092309318 0.8767392
0.19193098 0.092341423 0.87668633
0.19229576 0.092370428 0.87660408
0.19266729 0.092402667 0.87655222
0.19303875 0.092434809 0.87649947
0.19339728 0.092460744 0.87638777
0.19374946 0.092483617 0.87624699
0.19411467 0.092512704 0.87616509
0.19449309 0.092548035 0.87614214
0.1948649 0.092580177 0.87608904
0.1952368 0.092612341 0.87603593
0.19561559 0.092647724 0.87601316
0.19598122 0.092676833 0.87593108
0.19634026 0.092702799 0.87581909
0.19670603 0.092731923 0.87573689
0.1970787 0.092764273 0.87568516
0.19745119 0.092796482 0.87563193
0.19781043 0.09282244 0.87551975
0.19890915 0.092910014 0.87527412
-0.077388138 0.070370995 0.92666566
-0.07275942 0.070755266 0.92580688
-0.072451472 0.070782058 0.92576438
-0.072143465 0.070808858 0.92572188
-0.071837664 0.0708379 0.92570859
-0.071529448 0.070864707 0.92566597
-0.071221232 0.070891529 0.92562342
-0.070915103 0.070920601 0.92561018
-0.070604563 0.070945285 0.92553943
-0.070289612 0.07096561 0.92541188
-0.069974661 0.070985913 0.92528403
-0.069357514 0.071039706 0.92519999
-0.069046646 0.07106442 0.92512935
-0.068115979 0.071140736 0.92494541
-0.067806959 0.071167625 0.92490274
-0.067497909 0.071194515 0.92486012
-0.067188799 0.071221508 0.92481863
-0.06687957 0.071248397 0.92477572
-0.066566169 0.071270905 0.92467594
-0.066256791 0.071297832 0.92463315
-0.06594947 0.071327008 0.92461967
-0.06564194 0.071356155 0.92460567
-0.065332443 0.071383178 0.92456388
-0.065024734 0.07141231 0.92454946
-0.064710975 0.071434855 0.9244498
-0.064395219 0.071455233 0.92432177
-0.064085364 0.071482196 0.92427903
-0.063773543 0.071507074 0.92420924
-0.063465446 0.071536228 0.92419446
-0.063155323 0.071563199 0.92415166
-0.062847137 0.07159245 0.92413807
-0.062534958 0.071617261 0.92406702
-0.062220782 0.071639836 0.923967
-0.061908513 0.071664661 0.92389607
-0.061600029 0.071693949 0.92388237
-0.061289489 0.07172095 0.92383951
-0.06097886 0.071747981 0.92379659
-0.060042888 0.071824744 0.92361182
-0.059730172 0.071849607 0.92354071
-0.059419274 0.071876749 0.92349887
-0.059108257 0.071903817 0.92345595
-0.058793485 0.071926415 0.9233557
-0.058480501 0.071951307 0.92328459
-0.058171093 0.071980663 0.92327082
-0.057859749 0.072007753 0.92322785
-0.057546586 0.072032623 0.92315632
-0.057235152 0.072059795 0.92311424
-0.056608468 0.07210958 0.92297131
-0.05629158 0.072130024 0.92284298
-0.055978149 0.072154954 0.92277169
-0.055668116 0.072184362 0.92275798
-0.055356234 0.072211497 0.92271477
-0.055044234 0.072238632 0.92267156
-0.051914066 0.072501652 0.92212856
0.18239765 0.091944493 0.8785547
0.1834925 0.092034362 0.87833947
0.18385561 0.09206333 0.87825793
0.18495136 0.092153259 0.87804234
0.18532088 0.092185274 0.87798989
0.18569076 0.09221743 0.87793845
0.18752168 0.092368551 0.87758839
0.18786682 0.092388324 0.87741882
0.18821818 0.092411153 0.87727827
0.18858843 0.092443213 0.87722552
0.18895902 0.092475429 0.8771739
0.18932945 0.092507526 0.87712109
0.18969367 0.092536539 0.87703896
0.1900645 0.092568748 0.8769871
0.19043531 0.092600897 0.87693453
0.19080605 0.092632972 0.87688124
0.19117704 0.092665136 0.87682861
0.19154827 0.092697389 0.87677675
0.19190663 0.092723362 0.87666553
0.19227131 0.09275239 0.87658292
0.19264264 0.092784576 0.87653017
0.19301426 0.092816867 0.87647831
0.19337291 0.092842877 0.87636715
0.19373146 0.09286882 0.87625527
0.19447508 0.092933334 0.87615043
0.19484688 0.092965543 0.87609732
0.19521879 0.092997752 0.87604415
0.19559757 0.093033202 0.87602144
0.1959632 0.093062349 0.87593937
0.19632225 0.093088336 0.87582737
0.196688 0.093117505 0.87574518
0.19706723 0.093152985 0.87572247
0.19743316 0.093182169 0.87564021
0.1977859 0.093205079 0.87549919
0.1985247 0.093266554 0.87536383
0.19889772 0.093298934 0.87531149
-0.07277593 0.0711082 0.92581451
-0.072467983 0.071135037 0.92577195
-0.072159976 0.071161889 0.92572951
-0.071854144 0.071190991 0.92571616
-0.071545929 0.07121785 0.92567354
-0.071237713 0.071244709 0.92563105
-0.070929497 0.07127168 0.92558962
-0.070621073 0.071298547 0.925547
-0.070306122 0.07131888 0.92541945
-0.069063187 0.071417823 0.92513692
-0.06813249 0.071494251 0.92495304
-0.06782347 0.071521185 0.92491031
-0.067512363 0.071545914 0.92483926
-0.067203283 0.071572937 0.92479759
-0.066894084 0.071599908 0.9247551
-0.06658271 0.071624622 0.92468357
-0.066271335 0.071649402 0.92461276
-0.065964013 0.071678638 0.92459935
-0.065656513 0.0717078 0.92458475
-0.065348893 0.071736969 0.92457032
-0.065039277 0.071764044 0.9245286
-0.064725578 0.071786657 0.92442942
-0.064411789 0.071809225 0.9243294
-0.064098001 0.07183183 0.92423016
-0.063790083 0.071861118 0.92421651
-0.063480049 0.071888134 0.92417383
-0.063171864 0.071917363 0.92415923
-0.062863678 0.071946666 0.92414564
-0.062551528 0.071971506 0.92407465
-0.062237352 0.071994103 0.92397463
-0.061925083 0.072018966 0.92390364
-0.0616166 0.072048306 0.92388999
-0.061306059 0.07207536 0.92384708
-0.06099543 0.072102435 0.92380422
-0.060059488 0.072179295 0.92361945
-0.059746742 0.072204188 0.92354828
-0.059437692 0.072233573 0.92353463
-0.059124827 0.072258495 0.92346352
-0.058810055 0.072281115 0.92336327
-0.058497101 0.072306037 0.92329222
-0.058185935 0.072333246 0.92325038
-0.05787459 0.072360367 0.92320728
-0.057561398 0.072385229 0.92313528
-0.057249933 0.072412394 0.92309248
-0.05693844 0.072439626 0.92305046
-0.056623369 0.072462343 0.92295086
-0.05630818 0.072485 0.92285061
-0.055996448 0.07251218 0.92280751
-0.055684716 0.072539434 0.92276561
-0.055372834 0.072566606 0.9227224
-0.055060834 0.072593786 0.92267919
-0.054750562 0.072623283 0.92266542
-0.051930696 0.072857201 0.92213619
-0.051616341 0.072882235 0.92206484
-0.048162043 0.073169112 0.9214204
0.18237366 0.092325337 0.87853378
